# .PCD v0.7 - Point Cloud Data file format
VERSION 0.7
FIELDS x y z
SIZE 4 4 4
TYPE F F F
COUNT 1 1 1
WIDTH 1024
HEIGHT 1
VIEWPOINT 0 0 0 1 0 0 0
POINTS 1024
DATA ascii
0.7475081 -0.24798292 0.1710538 
-0.9937611 0.022869715 -0.16981333 
-0.06541127 0.07024907 -0.14734279 
-0.5343833 0.0518436 0.13909934 
0.4946692 0.070583306 -0.16700113 
0.9624838 0.07068166 -0.096972674 
-0.8206127 -0.28987068 0.15899913 
0.22916496 0.05561247 0.17098023 
-0.64006805 0.05256986 -0.20429803 
-0.17520872 0.053874824 0.18645094 
-0.92868197 0.06852581 0.16793332 
0.7633545 -0.2956194 -0.17078936 
0.5792544 0.07066579 0.16702698 
-0.80070746 -0.23665702 -0.1672236 
-0.36791596 0.074509256 -0.10678143 
0.71375066 -0.051709883 -0.044822797 
0.21100539 0.040662047 -0.13354592 
0.9064484 0.03588518 0.17095974 
-0.7160951 -0.03153244 -0.00433075 
0.02028218 0.029989436 0.08066495 
0.40733856 0.0706751 0.033208527 
0.9048091 -0.10970931 -0.15911548 
-0.7259127 0.066971205 0.18922481 
-0.33786947 0.09328994 0.08060666 
-0.9039502 -0.0088484865 -0.0027128682 
-0.17821662 0.053613547 -0.0019124597 
0.764931 0.07062255 -0.17072125 
-0.5429489 0.041269273 -0.05321774 
0.6088361 0.09553055 -0.036013853 
0.77388954 -0.29564077 0.0023271905 
0.8992041 -0.11632989 0.08893148 
0.70983565 -0.041169055 0.15677346 
-0.82664406 -0.011289482 -0.17461438 
0.8270674 0.061444957 0.005411812 
-0.7630954 -0.25131342 0.0061767288 
-0.8055269 -0.0694783 0.15783192 
-0.23322913 0.034532733 -0.17584367 
0.1793403 0.07798883 0.024391178 
-0.4090482 -0.025562927 0.17686063 
0.88036126 -0.2046467 -0.04776052 
0.69991213 -0.13067369 -0.16811836 
0.41418 0.031293504 0.17098843 
0.06276064 0.0832132 -0.057860725 
0.36532903 0.07067103 -0.10812919 
0.084403805 0.011266271 -0.18055846 
-0.6467032 0.07507329 0.048087414 
-0.4863566 0.028676638 -0.17661913 
0.9679917 0.035621583 0.050605036 
0.75659853 -0.1659824 0.019119147 
-0.8037741 0.060082924 0.047724582 
0.626127 0.065775126 -0.17094775 
0.7070841 0.07067409 0.056827806 
-0.87407064 -0.13163576 -0.15414141 
0.08140121 0.06512003 0.1874144 
-0.73906094 0.061097827 -0.11744442 
-0.8910549 -0.19690588 0.11040009 
0.7649334 0.07065349 0.17077118 
-0.74100524 -0.17635535 0.16871046 
-0.86883014 0.08382897 -0.10530224 
-0.98430914 0.06995598 -0.05051912 
0.27985626 0.029955149 -0.02578799 
0.52204406 0.029965516 0.03107849 
-0.05549403 0.04091394 0.17984423 
-0.074641906 0.094888575 0.042852387 
-0.4260443 0.06199795 0.007849568 
0.9073578 -0.022113303 -0.032186758 
-0.9113039 0.096684776 0.051338196 
0.8575637 0.029982578 -0.11747684 
0.3197726 0.07466804 0.10873083 
-0.29228055 0.02875791 0.0034327237 
0.45446512 0.029979562 -0.05812084 
0.7339125 0.07067126 -0.06632655 
-0.74954677 -0.07819337 -0.13937499 
-0.16484812 0.08048011 -0.10659042 
0.7751007 -0.21531427 -0.101137415 
-0.62439483 0.10450934 -0.07842905 
0.89467716 -0.22070684 0.09042303 
-0.9098678 -0.0688713 0.16005825 
0.7458977 -0.13733593 0.14343905 
0.6666072 -0.041922096 0.046756104 
-0.54896945 0.10081521 0.03187343 
-0.829349 0.029949464 0.15429375 
-0.78055584 -0.29564485 -0.084160596 
-0.62587094 0.012526793 0.16057874 
-0.27173513 0.03691863 0.15913065 
-0.4192319 0.07665708 0.13804264 
0.12363629 0.029945208 0.09301606 
-0.98405 0.028313572 0.0524462 
-0.26339778 0.083953775 -0.09501834 
0.912259 0.11674824 0.06340033 
-0.90362275 -0.20662555 -0.0985644 
0.81562084 0.029973373 0.09705985 
0.5072582 0.09645661 0.10654906 
0.670117 -0.03839626 -0.17092417 
0.8527016 -0.091342464 0.17002372 
0.3007104 0.03790417 -0.17084889 
-0.7872012 -0.2006886 -0.077892385 
-0.16560885 0.10715192 0.075262316 
0.7855114 -0.24297595 0.08505683 
0.5474481 0.030078728 -0.067348264 
-0.46283907 0.08112211 -0.10395419 
0.6760746 0.043621358 0.1705255 
-0.33738038 0.029406387 -0.18118751 
-0.7354187 0.05771979 -0.012657578 
-0.7872064 -0.20069844 0.07802804 
0.0019443634 0.02997334 -0.10146041 
0.6121568 0.02997914 0.051236853 
-0.8959881 -0.033779155 -0.12209284 
0.018562287 0.0228506 -0.007953025 
0.8697035 -0.03370146 0.06663243 
0.77159834 -0.01764421 -0.16308275 
0.41418126 0.03130418 -0.17084795 
0.123668335 0.029961312 -0.09305918 
-0.8161989 0.016052796 -0.027543657 
-0.25072575 0.08576779 0.055662334 
-0.08993331 0.08337821 -0.042621966 
0.6489547 0.0051762634 -0.099753566 
-0.8221816 -0.29395235 0.051387787 
0.24877697 0.029973824 0.09163432 
0.74600565 -0.13772249 -0.07974646 
-0.012527648 0.105700515 0.1442728 
-0.47926283 0.08267666 0.07716499 
-0.74119365 -0.17695798 -0.17091472 
-0.7254958 0.0397396 0.07145188 
0.95832056 0.030380586 -0.17069963 
0.46368942 0.10469184 -0.095530674 
0.27130508 0.095659405 0.025917698 
0.05518467 0.105126664 0.095114544 
0.7853067 -0.29567474 -0.081368074 
0.90260196 0.07897725 -0.024591269 
0.36506647 0.029975671 -0.036228828 
0.49617016 0.041100767 0.17099743 
-0.5467955 0.083265476 -0.16667156 
-0.92842615 0.07066096 -0.16656414 
0.1881769 0.07067281 -0.05553271 
-0.1256744 0.03193636 -0.18435736 
-0.58010495 0.032613024 0.07586977 
-0.9105245 0.09433881 -0.03240984 
-0.66215736 0.043377496 -0.11047876 
0.7262089 -0.084807664 0.074663535 
-0.41499215 0.057046056 -0.19219586 
0.039563596 0.07067081 -0.15758081 
0.9680513 0.037710764 -0.026279978 
-0.9096051 0.027601244 -0.07350293 
0.72395074 0.020849701 0.11490117 
-0.8948056 0.029949633 0.08382359 
0.6393525 0.07067045 0.11025038 
0.15168047 0.07004245 -0.16987209 
-0.7177609 -0.010775154 -0.10918969 
-0.12217657 0.063613765 0.11863566 
-0.75240636 -0.016352722 0.15382847 
0.7821887 -0.04743113 0.17509247 
-0.7612749 -0.24751216 0.12975924 
0.06337555 0.09696504 0.015251285 
-0.02057792 0.08941676 -0.01651936 
0.30121666 0.036413662 0.16924612 
0.7208153 -0.06523254 -0.124448024 
-0.34024104 0.058961283 0.17477393 
0.15215449 0.07066768 0.16903172 
0.5552864 0.029938212 -0.16095062 
-0.6745302 0.018809693 -0.03730291 
0.422562 0.07063598 0.10472751 
0.72535014 -0.20212989 0.08706944 
0.6766848 0.067323595 -0.008871932 
-0.37419787 0.10386928 -0.04089918 
-0.61526054 0.00680483 -0.15419711 
0.89861584 0.02997415 0.03357633 
0.29414788 0.07067053 -0.1076882 
0.8944438 0.08577797 -0.14119227 
0.8894092 -0.03955368 0.13429606 
0.8551695 -0.15167643 -0.13160941 
0.65035874 0.0008767813 -0.006734037 
-0.97732186 0.029344145 0.13545157 
-0.696488 0.025898302 -0.169186 
0.7593305 -0.1732776 -0.15496911 
-0.6140046 0.08125506 0.15773982 
0.48688182 0.029976461 0.091034144 
-0.7351723 -0.08298476 0.14691901 
-0.4696553 0.040456634 -0.04859865 
-0.7775907 0.06395017 -0.1744483 
0.5684776 0.07067316 0.085303135 
-0.8645924 0.09133781 0.15815705 
-0.25563726 0.07777635 -0.027201543 
0.70085865 0.021971045 -0.17934538 
0.7620394 0.07602164 0.09615213 
0.6888392 0.075182594 -0.116746165 
0.026201427 0.037283562 0.15963803 
0.56149745 0.07925515 -0.11175493 
0.32454905 0.08016277 -0.0155867785 
0.08179084 0.03000113 0.01520668 
0.6539284 -0.007974756 0.13279256 
0.7991966 -0.2795452 0.14015259 
0.49172863 0.070678085 -0.013217466 
-0.465997 0.031764142 0.15565442 
0.37160417 0.029948717 0.07234317 
0.7010992 -0.13389465 0.03706696 
0.8643032 0.02992902 -0.047474366 
-0.012807393 0.03416991 -0.17395617 
-0.95643556 0.0697602 0.009514213 
0.6121555 0.029976647 -0.05117113 
0.38966092 0.09055395 -0.026476437 
0.8346639 -0.0049806815 -0.17191705 
-0.53677547 0.1069114 0.104986735 
0.8866133 -0.2424225 -0.10006418 
0.775593 -0.2165137 -0.03652796 
0.22971492 0.09259869 -0.09982891 
0.36441982 0.07061828 0.1601272 
-0.9876137 0.066391766 -0.123292044 
-0.58905566 0.047011826 -0.097078145 
0.8531738 0.070670605 0.16516954 
-0.66980124 0.090047844 -0.008826461 
0.80961996 0.016551746 0.15849295 
-0.8610344 -0.24970257 0.12756982 
0.7711344 0.031414133 0.052315734 
0.80589575 0.07063622 -0.053245373 
0.22061005 0.029974531 0.035584293 
-0.5866996 0.086383335 -0.01581943 
-0.7780048 -0.2920101 -0.14986907 
0.7260434 -0.0844216 0.008647944 
-0.6894108 0.07195804 0.11053724 
0.7010976 -0.13389628 -0.03698098 
-0.80512434 -0.24848747 -0.03940811 
0.9043039 0.04366464 0.10958546 
-0.5023966 0.07051039 -0.0055915816 
-0.36782002 0.08818924 -0.16757524 
0.81229234 0.070686996 -0.12338126 
-0.635516 0.09113685 -0.1367223 
-0.8904158 -0.15306711 0.15222132 
-0.03611908 0.058898732 0.07249923 
0.8749155 -0.057169374 -0.15774105 
0.57169145 0.02995648 -0.0032713383 
0.7366423 0.0706412 -0.0060237707 
-0.1156547 0.06426851 0.011615284 
0.7060084 -0.14698337 0.098983414 
-0.8777687 0.054280415 -0.0028474592 
-0.054127064 0.07033891 -0.08826358 
0.1549719 0.080322824 0.09376592 
0.16866803 0.013370117 -0.16919324 
-0.8727857 0.042823706 -0.14734377 
0.68371993 -0.08754287 -0.080560036 
0.87076324 0.07067068 0.065670066 
0.37077975 0.070556365 -0.16670045 
0.43888202 0.059950747 -0.12421056 
0.25712648 0.08088055 0.119463705 
-0.91058326 0.0052131494 0.13454607 
0.1486515 0.03023856 0.040051077 
0.9625251 0.07067203 0.097165115 
-0.39348984 0.048772816 -0.039894998 
0.23792607 0.07067392 -0.014819335 
0.14865868 0.029963885 -0.040514447 
0.46056816 0.029977258 0.01404107 
-0.53448486 0.059726037 -0.111803204 
-0.29534692 0.036099494 -0.1013905 
0.09486811 0.07675168 0.1323976 
-0.47590652 0.08718069 0.13461955 
-0.39009246 0.056910656 0.09230213 
0.24877416 0.029970853 -0.09153658 
0.05763655 0.029898409 -0.11494574 
0.6914221 0.007935421 0.03255736 
-0.8518996 0.07065495 0.076713935 
0.7767468 0.029943932 -0.004940718 
-0.91115 0.09685012 0.1084381 
0.8908205 -0.10647969 -0.103869036 
-0.32152918 0.07736833 0.009628065 
-0.41119453 0.03959048 -0.11838668 
0.77553904 -0.21648428 0.036663163 
0.9076578 0.07067736 -0.08587648 
0.7515224 -0.268355 0.048617512 
0.67336935 -0.059967514 -0.0070710164 
0.74574876 -0.25297776 -0.072122306 
-0.7580894 -0.21008775 -0.124529555 
0.91554147 0.013676354 -0.07411507 
-0.21616131 0.07089013 -0.13724346 
0.33166397 0.07065789 0.038765606 
0.7252936 -0.20318529 -0.016901966 
0.70179534 -0.019811893 -0.09882326 
-0.70966893 0.015145403 0.16913868 
-0.26497495 0.07486745 0.11958224 
-0.8215661 -0.29335454 -0.0038233995 
-0.8143975 -0.27288723 0.106859975 
0.06296241 0.029972468 -0.04397347 
-0.7933909 -0.18383525 0.15400805 
0.9039498 0.033518244 -0.16381288 
0.7245116 0.029972408 -0.10223975 
-0.93104076 0.028230125 -0.1238102 
-0.80995524 -0.26134306 -0.11796529 
-0.7747408 0.08215867 0.08823581 
-0.14207007 0.09305411 -0.05483225 
-0.80044925 -0.23630446 0.16599332 
-0.7215598 -0.03225875 -0.05829993 
0.04014261 0.087303124 0.14458777 
-0.11822629 0.06634855 -0.13668132 
-0.19375612 0.07680365 -0.04815309 
0.18028733 0.029933982 0.1475083 
-0.8220668 0.016297428 -0.08117879 
0.20677967 0.065494075 0.0941162 
-0.78041786 0.007414963 -0.15436351 
0.5069815 0.08198002 -0.07352476 
-0.8834805 -0.101432346 0.12722349 
0.6179249 0.07033016 0.017057614 
0.842371 0.02993948 0.045310363 
0.40228805 0.02392963 0.008735858 
0.67951244 0.056811213 -0.060699336 
-0.87894106 -0.09892072 -0.11291441 
0.7852976 -0.29565072 0.08147456 
0.28833607 0.041856207 0.05885343 
-0.758915 0.03531904 0.14565448 
0.6998822 -0.13065296 0.16826196 
-0.8922375 -0.058129154 -0.016910389 
0.43784925 0.030168261 0.0723033 
-0.9561636 0.07060916 0.066071026 
0.8058951 0.07063918 0.05328564 
0.958437 0.030356133 0.17090064 
-0.7406958 0.05778813 -0.06448411 
-0.1735071 0.035433628 -0.16405426 
-0.16823757 0.10645774 0.023254279 
0.6724452 -0.057483558 0.12440735 
-0.6708874 0.08935122 -0.06081952 
-0.79180914 0.002368241 0.18175814 
0.34773445 0.029971542 0.11810568 
-0.6699397 0.018741703 0.014077019 
-0.9041691 -0.0081397155 0.048829377 
-0.5925078 0.05523981 -0.14782307 
0.7175321 -0.17771083 -0.06516431 
0.4877986 0.0706888 0.037787408 
0.118941166 0.070011646 -0.051307023 
-0.28977996 0.047083512 -0.18569407 
0.05761541 0.029937942 0.115098536 
-0.17494859 0.05313297 0.048765972 
-0.8226332 -0.29361415 -0.05456674 
-0.33228245 0.065854214 -0.038540237 
-0.78494066 0.051976394 -0.09824614 
0.015057704 0.062046662 -0.039287984 
0.25461197 0.017576385 0.15014324 
0.7985331 -0.2796948 -0.13860035 
0.23275839 0.06606858 -0.17094928 
0.74743795 -0.24805455 -0.17089312 
0.6393582 0.07067225 -0.11010922 
-0.29789126 0.029089205 -0.04631325 
0.8531197 0.07069364 -0.16503383 
-0.7631651 -0.25249752 0.056151867 
0.26120827 0.06915992 -0.063176766 
-0.7873539 -0.19965905 0.028142363 
0.7633988 -0.29558894 0.17097014 
0.5265571 0.029940527 0.12125674 
-0.51965386 0.059935465 0.058964964 
-0.11327378 0.06386517 0.06103009 
-0.7212828 -0.00509235 0.037124198 
0.3151105 0.029975574 0.01621026 
-0.8060689 0.059635703 -0.0015427023 
0.6264725 0.0569335 0.1688261 
-0.019628597 0.089166194 0.032630682 
0.52650297 0.029975465 -0.12110672 
0.6914177 0.007934975 -0.03253666 
0.68716884 0.060101703 0.10033446 
-0.39195275 0.056636453 0.042633004 
0.701833 -0.01985428 0.09895419 
0.67244714 -0.05747533 -0.12423385 
0.74824244 -0.1436978 -0.023677677 
0.5951681 0.029972436 0.097143285 
0.5952323 0.029942106 -0.09703937 
0.22060834 0.029974611 -0.03553468 
-0.9290877 0.07065597 -0.085643634 
-0.57966775 0.03365416 0.1245637 
-0.57132316 0.021123262 -0.1753778 
0.16402137 0.02992567 -0.12027467 
0.81230694 0.070671804 0.12349361 
0.4357031 0.070675604 -0.039595827 
0.75696516 0.070677176 -0.12308832 
0.85456973 0.029944321 0.124936566 
0.7292995 -0.20894232 -0.11312118 
-0.765606 -0.25128275 -0.101577245 
0.91741496 0.07067259 0.04977986 
0.55528945 0.02996228 0.16106719 
0.39629224 0.029974937 -0.12678532 
0.39629447 0.029966598 0.12693618 
0.4708793 0.07627242 0.15143639 
0.5791189 0.07056672 -0.16765136 
-0.31198967 0.04786431 -0.14399496 
0.19245099 0.02996344 -0.07851687 
0.5613301 0.07067876 0.017429598 
0.7728195 -0.20911074 0.1646412 
-0.95845133 0.07058479 0.11282481 
0.273249 0.08821571 0.07209004 
-0.008564124 0.0088322405 0.14654377 
0.81562316 0.029972563 -0.09694803 
-0.18202072 0.009926158 0.17242055 
-0.78055495 -0.29565865 0.084309325 
-0.77462375 -0.28313205 0.15690506 
-0.23712541 0.059703156 0.011464721 
-0.767845 0.07950293 0.17345385 
0.3607106 0.032262377 0.18617482 
0.50109047 0.029974937 -0.069871426 
0.111289404 0.030361779 -0.13770796 
0.88610387 -0.18509366 0.11870932 
0.7137475 -0.05170357 0.044905532 
-0.7753464 -0.16803885 -0.13279562 
-0.6900102 0.071390666 0.06359264 
-0.502144 0.059121057 0.17126024 
0.11627832 0.07067135 0.070683084 
-0.8040702 0.034795642 0.11608074 
-0.087991856 0.06854021 0.14910688 
0.79959106 -0.28063646 -0.040293004 
-0.35136878 0.0801901 0.12257869 
0.7995945 -0.2806296 0.040445648 
0.6850456 -0.091095135 0.03268401 
-0.8293383 0.029979805 -0.1541574 
0.25493336 0.029973084 -0.14059073 
-0.6292008 0.072561555 0.11557966 
0.7251832 0.070636734 0.123300076 
-0.4738896 0.08074839 -0.14822006 
0.084582105 0.070615135 -0.09587845 
-0.2955342 0.0756788 -0.06373639 
0.16912569 0.029944675 0.09019848 
-0.8622771 0.036282785 -0.07344586 
0.009269442 0.07057906 -0.1235493 
0.34776875 0.029980972 -0.118558176 
0.7095124 -0.08627817 0.1709702 
0.70946246 -0.08628875 -0.1708285 
0.4650203 0.07067492 0.07713246 
0.36533016 0.07067234 0.10825025 
-0.779884 -0.2945374 0.035025228 
0.2825161 0.07894972 -0.16453661 
0.74605274 -0.13775392 0.079858616 
-0.42268163 0.07462345 -0.14474247 
0.70607996 -0.14696243 -0.09909708 
-0.7631577 -0.2524878 -0.056012966 
-0.8051354 -0.2484908 0.03955973 
0.79809725 -0.23414461 0.13670404 
0.29710644 0.029970987 -0.088185586 
0.03597637 0.07067518 0.06944393 
0.7624243 0.07067038 0.0321179 
-0.7327613 0.060610335 0.11445333 
0.9358727 0.07064086 0.0043466855 
-0.50878096 0.07027787 -0.05491154 
-0.16472037 0.07720391 0.12139523 
-0.925422 0.029950703 0.0027421385 
-0.82200277 -0.28892186 -0.15636331 
-0.46422735 0.04039762 0.0002098803 
0.74745667 -0.25750196 0.10290008 
-0.8649762 0.08464294 -0.061105564 
0.4788343 0.044035267 -0.13521898 
-0.85108614 0.024347864 0.08750364 
0.7450844 0.029935952 -0.053327143 
0.5220412 0.029947719 -0.030995484 
0.42699534 0.07314917 0.15523711 
0.69430864 0.00013581352 0.15653536 
0.66660583 -0.041926734 -0.046679433 
0.81961477 0.029931588 -0.043571573 
0.73061657 -0.21260935 0.15116987 
0.54739344 0.02995347 0.06682322 
-0.06884403 0.07606658 0.003734639 
0.92766863 0.029933251 -0.12718992 
-0.98153716 0.029956592 -0.100026056 
0.6590211 -0.021682316 0.08467049 
0.91104376 0.07067004 0.14316678 
-0.2738044 0.08630364 0.011388924 
-0.2450264 0.07855464 0.15773848 
-0.71620476 0.017607262 -0.04850734 
0.69213164 -0.10997978 0.11630039 
0.1090795 0.05774942 -0.17084847 
0.7262138 -0.08480859 -0.07458251 
-0.0021065264 0.064501464 0.13784346 
0.692187 -0.109994024 -0.11615529 
0.68371606 -0.08754262 0.08068917 
0.047892984 0.020861201 -0.16033375 
-0.943487 0.02993745 0.066337064 
0.022047322 0.088809416 0.021292804 
-0.8948884 0.031095305 0.03548254 
-0.6328906 0.05658844 -0.16121913 
0.13386126 0.029953063 0.13419175 
-0.44399658 0.02771945 -0.17713596 
0.6701101 -0.038412344 0.17110184 
0.85761446 0.028856322 -0.16067286 
0.27905807 0.07734592 -0.02188488 
0.72906995 0.029968811 0.15584402 
0.9680321 0.030222854 -0.10742664 
0.8707561 0.07067076 -0.06555646 
0.9680391 0.030245833 0.107580386 
-0.08458461 0.04235644 0.11636097 
0.6850949 -0.09112374 -0.032622986 
0.17116989 0.070678115 -0.017317485 
0.7635114 -0.18440826 -0.060456444 
0.76351434 -0.18440384 0.0605776 
-0.7118127 0.017989404 0.0036241594 
-0.5655913 0.07107006 0.08296709 
0.70978945 -0.04113516 -0.15664013 
0.775143 -0.21690755 -0.17080161 
-0.89476883 0.030018417 -0.034661274 
0.53809434 0.07505424 0.17148143 
0.17559431 0.07427122 0.1348835 
-0.83900994 -0.055995245 0.1372608 
-0.21478392 0.05004766 0.17464584 
-0.9024561 -0.20599031 -0.14001647 
-0.9686974 0.062254462 -0.17089024 
-0.526885 0.02050227 -0.17613596 
0.7137305 -0.16748707 0.1560725 
0.7137139 -0.16750555 -0.15593731 
-0.6561611 0.0077660624 -0.15824296 
-0.63171905 0.077231154 -0.00028049573 
0.81878674 0.01764267 -0.14162016 
0.33839518 0.048381295 -0.15486035 
-0.026075281 0.07067151 -0.15885407 
0.34675875 0.096497595 0.06672198 
0.8669302 0.0027085906 -0.077957265 
-0.26745752 0.05440358 -0.1521691 
-0.5917745 0.08058795 -0.0734705 
0.7908476 -0.25732443 -0.09393351 
-0.9686798 0.06217812 0.1710069 
-0.48102188 0.082186066 0.026668426 
0.52017504 0.069781505 -0.124019116 
0.52155113 0.070642784 0.07904132 
0.5995756 0.06675033 -0.114648625 
-0.36747596 0.04743521 0.1476133 
0.84164673 0.07067863 -0.09320548 
0.8416577 0.07067167 0.093317926 
-0.70654684 0.04909725 -0.09720454 
0.7458551 -0.13732743 -0.14331514 
-0.7421578 -0.041113913 -0.15230563 
0.55015314 0.061067898 -0.019559732 
0.47224844 0.06606087 -0.099790685 
-0.3753743 0.054432273 -0.19290039 
0.019713067 0.022371389 0.041778546 
-0.15024564 0.0675356 0.15684152 
-0.32842484 0.0880271 -0.17022748 
0.7593426 -0.17326772 0.15511209 
-0.9389768 0.06887673 -0.12868878 
0.7993835 0.055958673 0.15873244 
0.9067788 0.029955694 0.07289566 
-0.5900892 0.058573794 0.17894399 
-0.08083841 0.08046688 0.07857843 
-0.60120857 0.079980694 -0.11895645 
-0.53521216 0.048762504 0.0929422 
-0.6859025 0.010769198 -0.11403954 
0.72581255 0.05006269 0.029900165 
-0.5556697 0.019760434 0.15157472 
-0.19228841 0.054074228 -0.10005808 
-0.4295141 0.06226197 -0.041143555 
0.38872436 0.059929915 -0.079546854 
0.72671574 0.066401765 0.17097276 
0.72671175 0.06640715 -0.17085817 
-0.29352626 0.04962549 0.11480506 
-0.5654442 0.07281557 0.13076594 
0.08454018 0.070672266 0.0959823 
0.2224822 0.083255365 0.13556755 
0.73063076 -0.21261425 -0.1511327 
0.07043569 0.049827404 -0.17094582 
-0.775186 -0.16823846 0.09408964 
0.23948787 0.07067282 0.071096964 
-0.57990456 0.047598083 -0.04795347 
0.7620524 0.06984317 -0.03403668 
-0.69903576 0.05071295 0.14016795 
0.18861403 0.07067179 -0.12918715 
-0.5836252 0.08618164 0.034076955 
0.7290737 0.0299751 -0.15571326 
0.7881214 0.04095307 -0.17087631 
-0.7340272 0.025406284 -0.16726647 
0.8450259 0.029970434 0.16117401 
-0.080749415 0.05403643 0.045237508 
0.785619 -0.24322924 0.012722615 
0.7719193 0.070639625 0.13419673 
-0.33896524 0.08049716 0.042279687 
0.24601354 0.06460146 0.020887211 
0.8986653 0.029935898 -0.03350643 
0.9474125 0.065765046 0.17106299 
-0.55232775 0.10022291 -0.01681219 
-0.69203365 0.04891422 -0.1405322 
-0.028973132 0.061494432 0.0059536733 
-0.15238424 0.07143906 -0.14936575 
-0.42174393 0.0754037 0.092165425 
0.36506775 0.029976476 0.036280163 
0.048603963 0.07067412 -0.005510267 
0.08637343 0.07724897 0.03578338 
0.45657533 0.04275614 0.14858559 
-0.86438614 -0.09370697 -0.14595924 
-0.13956091 0.046208322 0.18542267 
-0.9772823 0.029962841 -0.13624924 
0.94585764 0.064603016 -0.1689627 
0.33115143 0.04751456 0.15167965 
-0.793814 0.051165473 -0.1445229 
-0.8775101 0.069988966 -0.17090696 
0.36042792 0.09175237 -0.0051077073 
0.7496133 0.044842694 -0.19104998 
-0.50129753 0.06511139 -0.089919135 
0.6412336 0.025853971 0.072289504 
0.27980298 0.029975465 0.025845172 
0.9076736 0.07067478 0.08601081 
-0.70046 0.049763184 -0.047165334 
-0.37998074 0.10302495 -0.08883523 
0.653935 -0.007971875 -0.13264857 
-0.9828197 0.027193725 0.170703 
-0.9009523 0.013280836 -0.13576715 
-0.41951787 0.04206793 0.14627677 
-0.98156613 0.02992452 0.100188665 
-0.14790727 0.06362558 -0.017471625 
-0.2453788 0.08186332 -0.15609847 
0.12063185 0.05640792 0.16162966 
0.6411826 0.025882443 -0.072189264 
0.2696642 0.051707413 0.16488206 
0.61502475 0.060056902 -0.06947265 
0.37155995 0.029972773 -0.072244614 
-0.91854376 0.07064972 0.02866011 
0.94213504 0.061974823 -0.12575565 
-0.562806 0.055292703 -0.18058233 
-0.85523474 0.07064793 0.1313861 
-0.27238792 0.066869766 0.07577115 
0.42435437 0.05608471 0.0062479074 
-0.7768032 0.08100486 0.039903644 
-0.39019355 0.048294168 0.008696802 
0.16289547 0.040042512 0.18188475 
-0.2921786 0.0641102 -0.031053483 
0.49444297 0.07063307 0.12592733 
-0.94347507 0.029953696 -0.06619187 
0.38089818 0.07067527 0.055428922 
0.062900215 0.029971806 0.044074297 
0.37068376 0.062446192 -0.019941773 
0.7809433 0.0706724 -0.07691562 
-0.8107231 -0.26339993 0.07003119 
-0.81071603 -0.26339275 -0.06988035 
-0.77500004 -0.1681922 0.12844673 
0.7670874 -0.29565126 -0.052255344 
-0.6481839 0.08897347 -0.16847965 
0.6924087 0.060421657 0.14558817 
0.21342753 0.037978284 0.14560787 
-0.33765805 0.08687296 -0.09702097 
0.67607874 0.043632645 -0.17038131 
-0.66614306 0.093326055 -0.09433805 
-0.85245025 0.017692221 -0.1759441 
-0.3789624 0.06925711 -0.07503127 
-0.60192645 0.05616071 -0.18035339 
-0.9297949 0.029926235 0.12171702 
-0.7902656 -0.20009637 -0.122694686 
-0.80165213 -0.23089753 -0.08194117 
0.7750989 -0.21529828 0.101263836 
0.45272458 0.06654778 -0.010844414 
0.7175306 -0.17770858 0.06528858 
0.29603013 0.08565166 0.046391822 
0.18071124 0.078334294 0.07223052 
-0.8042745 0.033514395 0.068305686 
-0.02150183 0.05811492 0.16452403 
-0.3340975 0.05209612 0.1424751 
-0.9290298 0.070671506 0.08584545 
0.058479723 0.07988877 -0.1315829 
0.18056297 0.05417073 -0.17520718 
0.30233917 0.069675855 0.16724099 
-0.15056857 0.06352887 -0.06757067 
0.57898355 0.07064239 0.11679449 
0.12797903 0.057274513 -0.111349605 
0.7909262 -0.18202315 -0.15976247 
0.6583339 0.06273035 -0.035987798 
0.87601674 0.032546323 0.14985082 
0.29713702 0.029950561 0.08831683 
0.33964205 0.08891902 0.14862727 
-0.7276929 0.039431762 0.022823397 
0.39680347 0.062123757 -0.12106959 
0.6590865 -0.021717373 -0.08456916 
-0.75655043 -0.21114886 -0.080522634 
0.6489486 0.005175965 0.099891275 
0.9276877 0.029951192 0.12732604 
0.3151083 0.029976714 -0.016166205 
-0.84747535 0.026474942 0.12769912 
0.69437987 8.897405e-05 -0.15639812 
0.38439924 0.07066585 0.008174928 
-0.8571613 0.036571693 -0.020213624 
0.082817204 0.06214124 -0.04397286 
-0.38510302 0.064889066 0.12310777 
-0.023447825 0.070672646 -0.042464964 
-0.8552206 0.07066856 -0.1312589 
0.51620203 0.064717345 -0.03315698 
-0.9561421 0.070647575 -0.06595245 
-0.7736814 -0.22611134 0.041149724 
-0.7737757 -0.22665446 0.09106893 
-0.09184857 0.043126002 0.16796362 
0.6573156 0.06998733 -0.13641074 
0.72512776 0.07067632 -0.123181075 
0.035944663 0.07067163 -0.06934525 
0.58113945 0.07680514 -0.0065490054 
0.7671373 -0.2956541 0.052419413 
-0.8761623 0.05408195 0.04662731 
-0.53333586 0.08418008 -0.1318234 
-0.055165783 0.040555526 -0.15096621 
-0.009789931 0.048567064 -0.13581827 
0.74752414 -0.2574748 -0.10326803 
-0.7831133 -0.21023665 0.1689074 
0.5458647 0.07118016 0.059214346 
-0.18096767 0.072783194 0.16030104 
-0.78339744 -0.21080261 -0.17093852 
-0.49691117 0.06933564 -0.16606048 
-0.09088202 0.07248341 0.11094657 
0.6290616 0.07067613 -0.028512627 
-0.10328031 0.06822279 -0.06644728 
0.49895096 0.036083296 -0.15774307 
-0.75918967 -0.24668103 -0.13176133 
0.14588381 0.049223483 -0.1474116 
-0.6710307 0.053674106 -0.20746918 
-0.5375698 0.08195278 -0.05407753 
-0.5997884 0.027852345 0.1671311 
-0.16622214 0.07652894 0.07911728 
-0.15749341 0.0776403 0.020825926 
-0.094460316 0.07073803 -0.014967214 
-0.75553495 0.03406935 -0.051970996 
-0.3023363 0.035033222 0.14027447 
0.16404934 0.029935632 0.120129265 
0.91746193 0.07063128 -0.0496772 
0.041206367 0.06544578 0.02389916 
0.14589854 0.079612926 -0.031470593 
0.0817276 0.029975535 -0.015104138 
0.1450683 0.06012146 0.11406289 
-0.17093498 0.059514143 -0.036603812 
-0.76173383 0.03344199 -0.103649646 
-0.53214324 0.07483439 -0.008255486 
0.53486586 0.017408 0.17938036 
-0.3474469 0.08579695 -0.14550707 
-0.74655265 0.052443452 -0.16363202 
-0.98313516 0.07063553 -0.0041663516 
0.70983124 -0.041109916 -0.079389036 
-0.8775958 0.066028565 0.16730013 
0.70976484 -0.041073214 0.07948685 
-0.8862708 0.068865135 -0.14179133 
-0.57639796 0.052235596 0.14933954 
0.70994467 0.011436004 0.09033826 
0.18031573 0.029972816 -0.14749596 
-0.77011085 -0.26525933 -0.019059336 
0.65760326 0.07066903 0.13359366 
-0.7249437 -0.0052190563 -0.014586106 
0.95643497 0.029558796 -0.14120558 
-0.76843953 -0.26655692 0.030870346 
-0.55390096 0.040753104 -0.10056745 
0.85619396 0.04727083 -0.08325173 
-0.800341 -0.23089293 -0.016618006 
0.4948166 0.07066305 0.16710654 
0.49537906 0.045019064 0.06755959 
0.32318026 0.068268396 -0.108468235 
0.43575388 0.07065488 0.039667092 
0.5773013 0.04346243 0.17709881 
0.7346076 -0.052388065 0.024890315 
0.75157064 -0.2683792 -0.04844622 
0.3560133 0.07973721 0.026279438 
0.74578786 -0.25298157 0.07228501 
0.783458 -0.24310744 -0.04423963 
0.5685284 0.07064486 -0.08521658 
0.040245745 0.06778445 0.16569522 
0.6960059 0.036200736 -0.03302184 
0.20956571 0.050943844 -0.16014853 
0.7339698 0.070640296 0.06641102 
-0.6816387 0.04335004 -0.084594436 
0.65651333 -0.014993069 -0.16015176 
0.7070793 0.07067183 -0.056732383 
0.65648884 -0.014938919 0.16029906 
-0.19188248 0.076393664 -0.011983912 
-0.1886543 0.076124966 0.039355665 
-0.8711622 0.063520215 -0.08563384 
-0.2890855 0.06348063 0.018351963 
0.10084187 0.08986435 -0.042308956 
-0.24579896 0.059021786 0.07066129 
0.4542744 0.08194088 -0.1145616 
-0.7789078 -0.29453728 -0.121830106 
0.44013897 0.029977025 -0.16021356 
-0.66052055 0.06469358 -0.052282803 
0.4605672 0.029978849 -0.013997112 
0.325513 0.029975185 -0.13811766 
0.08520421 0.029954862 0.11995403 
0.08517616 0.029889982 -0.119789615 
-0.5167357 0.037183426 0.16219091 
0.48263806 0.03658313 0.14096986 
-0.12839748 0.06980194 -0.04797124 
0.0019408028 0.029970486 0.101565816 
0.67506564 0.009928333 -0.107975416 
0.7424921 0.027919386 0.02816485 
0.020373236 0.029953606 -0.08067948 
-0.1946797 0.056222193 -0.14690837 
-0.6184011 0.05864216 -0.123007365 
0.42253804 0.070672825 -0.104608305 
0.69426084 0.041985497 0.0806409 
-0.047218762 0.08761119 0.031037891 
0.28752786 0.0706501 -0.07145758 
0.069097385 0.04825377 0.16934077 
0.38089776 0.070673265 -0.05536834 
0.7708108 -0.29543057 -0.10480358 
-0.22476262 0.06594287 -0.16508016 
0.78099597 0.07063714 0.07699538 
0.40738526 0.07065055 -0.03314937 
0.23031469 0.07064113 -0.08342056 
0.796072 0.043766856 -0.04603038 
0.24016833 0.0398563 -0.1687129 
-0.22726539 0.0828643 -0.11533073 
0.32541594 0.0705386 -0.04114865 
0.0033562395 0.07052242 -0.15010488 
0.64464784 0.045880925 -0.1708945 
0.70800024 0.020397207 0.1700806 
-0.62828887 0.07193901 0.06775194 
0.77117705 -0.29564783 0.104623914 
-0.96258557 0.068662606 -0.11318548 
0.25224385 0.06902998 0.09562696 
0.7292478 -0.20894478 0.1129356 
0.6022973 0.053144302 -0.17230397 
0.8471653 0.07063588 -0.0100685805 
0.6552952 0.07261514 0.0066740746 
-0.09096341 0.068162896 -0.13908723 
0.7383451 -0.117282726 0.09554812 
0.7383443 -0.117285654 -0.09541906 
-0.6554892 0.06488508 -0.002252237 
-0.89563495 0.012743604 -0.05605628 
0.2008737 0.06204934 0.02568311 
0.5595497 0.052283075 -0.17515594 
-0.42802104 0.039006177 -0.15881224 
0.5045017 0.029978057 0.010860413 
-0.31941146 0.076860584 0.06019101 
-0.53772765 0.105890825 0.05555339 
-0.46795028 0.06251503 -0.08555795 
0.14787968 0.022807235 -0.14452006 
0.046040837 0.07018363 -0.04171834 
-0.6995808 0.048256252 0.104418896 
-0.34086317 0.08107684 -0.008117545 
-0.9063174 0.070657596 -0.099094 
-0.72931874 0.056587778 -0.14404921 
0.77928233 0.06027795 -0.13258371 
-0.77270466 -0.26538807 -0.08044865 
-0.90633076 0.07064491 0.09920599 
0.7108572 -0.008316354 -0.02553132 
0.060396977 0.06562485 -0.08703394 
-0.24337463 0.060009204 0.119016744 
-0.459429 0.037538193 -0.15839994 
-0.90996516 0.09486279 0.023620496 
0.54669905 0.07130836 0.099810794 
0.46204525 0.04380344 -0.15669909 
0.16916452 0.029968897 -0.09023976 
-0.4806736 0.06246379 -0.13096496 
0.19241612 0.029952422 0.07860481 
-0.9195017 0.070411675 -0.027690373 
0.29415005 0.07067369 0.107807264 
-0.28445038 0.07822638 -0.108981654 
0.4944116 0.07067427 -0.12578903 
0.4433334 0.07062923 0.1355024 
0.42029047 0.083952755 0.08290188 
-0.51837033 0.060650814 0.108225554 
0.48696172 0.029967507 -0.09111201 
0.29392323 0.085412204 -0.002797667 
-0.38774052 0.06949588 -0.121947184 
-0.13719183 0.08445155 -0.02910352 
-0.91400284 0.067799 -0.13342305 
0.8224419 0.054045107 -0.092368744 
0.7450264 0.029975222 0.05337301 
0.17679842 0.070667595 0.16312845 
0.78556675 -0.24322766 -0.012550008 
0.43875942 0.028564397 0.1595349 
-0.4821556 0.075464 0.05097225 
-0.68563366 0.08735876 0.0446155 
-0.8104242 -0.26232684 0.019216754 
0.76237744 -0.1207024 0.15248951 
0.55742025 0.05714048 0.17056361 
-0.67667997 0.04357641 -0.03490223 
-0.77054346 0.02871787 -0.1459076 
0.5843554 0.07023753 0.14115031 
0.49172756 0.070678204 0.013259996 
0.56864685 0.049582146 -0.15222138 
0.4878116 0.07065061 -0.037725385 
0.22666468 0.080058396 0.16882925 
-0.68308824 0.087789275 0.09274482 
-0.58366114 0.07690674 0.011260753 
0.36419186 0.030557584 -0.011623625 
0.06073492 0.07974263 0.1334004 
-0.24159172 0.06047862 -0.037575737 
0.40187025 0.08705519 -0.0054751714 
0.9680633 0.03568846 -0.050615277 
-0.711198 -0.010207747 -0.057925057 
-0.24676596 0.072938114 -0.1334845 
0.11015524 0.04046494 0.14652874 
0.9680447 0.037715375 0.026372084 
0.46501872 0.07067251 -0.07704461 
0.3804454 0.07354691 0.08945525 
0.7566528 -0.16600165 -0.019013617 
0.7202793 0.013439256 -0.19112253 
0.7482434 -0.14369772 0.023763081 
0.34847915 0.05317132 0.1249952 
0.011209609 0.069499716 -0.09944631 
-0.58673036 0.076781794 -0.03800539 
0.27375737 0.03858596 -0.15294217 
-0.9880185 0.04794474 -0.17009477 
-0.87824905 0.070630364 0.1436978 
0.18799438 0.087076075 -0.038023267 
0.06023784 0.030219521 -0.0045002215 
0.16580866 0.048518166 0.14402924 
0.10421651 0.08150908 0.08812015 
-0.11439839 0.08512313 -0.035875484 
-0.67567366 0.041738067 -0.15579408 
0.8383144 0.03640144 -0.031091062 
-0.39971483 0.05580832 -0.106160834 
-0.89665693 0.029036306 -0.09271184 
-0.14888841 0.07524001 -0.09060057 
-0.197697 0.076393865 -0.09750527 
-0.06515241 0.070650876 0.14651686 
-0.7402885 -0.17498188 0.14568302 
-0.4977632 0.03740699 -0.15865861 
0.6849911 0.029979583 0.032106057 
0.5340137 0.036106523 -0.15513778 
0.8195539 0.029971216 0.04363824 
0.2865229 0.05579296 -0.17089768 
0.32551208 0.029966958 0.13828182 
-0.6230681 0.06154475 0.15102294 
-0.08305728 0.05451024 -0.003939338 
0.28750682 0.07065421 0.07155149 
0.43787688 0.029973436 -0.07348999 
0.0062513407 0.028153125 0.1649078 
0.64236754 0.04156237 0.16452093 
0.21045443 0.029966703 0.055616993 
0.91098356 0.07068953 -0.14297995 
0.7663936 -0.2533913 -0.091821976 
-0.85189426 0.07066111 -0.07661452 
0.21040393 0.029972732 -0.05551297 
0.45445383 0.030047854 0.05721985 
0.788068 0.041002277 0.17095765 
-0.2738618 0.07903982 -0.059953287 
-0.25260392 0.08609295 0.004778862 
-0.5057023 0.073043875 0.016161285 
0.8642891 0.029942779 0.047506273 
0.0074339868 0.029970009 -0.16655456 
-0.70616776 0.030617602 -0.15007707 
-0.50383383 0.073552705 0.065701514 
-0.27145445 0.08595783 0.06276272 
-0.1614094 0.07783386 -0.02938686 
-0.35363737 0.07944745 0.074495435 
0.41161767 0.05105372 -0.16199835 
-0.49165332 0.06541257 -0.042379707 
0.503174 0.050926927 -0.12846373 
-0.46144855 0.07065315 0.07408667 
0.50450224 0.02997834 -0.010817045 
-0.4631879 0.07042566 0.02347659 
-0.1899673 0.033123277 -0.177819 
0.6185887 0.070679754 0.038600694 
-0.047074832 0.07864315 -0.15495524 
-0.6866143 0.05349686 0.052273337 
-0.24914777 0.062094618 0.04971295 
-0.7325001 0.059559118 0.06725568 
0.114824906 0.06920646 -0.09947547 
-0.694961 0.03198479 -0.10260789 
-0.02344859 0.0706716 0.042506166 
0.28195223 0.07066461 -0.050897297 
0.57123196 0.037675343 0.14929038 
0.3997035 0.037217513 0.15664262 
-0.9436604 0.02923381 0.013570778 
0.0014775436 0.058137957 0.1577524 
0.16383968 0.06629746 0.07671056 
-0.09268638 0.0715245 0.06344904 
0.20376937 0.034874108 -0.11458065 
0.2818926 0.07067411 0.05097588 
-0.3754584 0.073955365 -0.15408039 
0.09675413 0.055167984 -0.10331607 
0.8130009 0.04611322 0.1712923 
0.72669184 -0.20215066 -0.09344832 
-0.28267637 0.08094372 -0.0068288394 
0.40980667 0.061539233 0.15820839 
-0.049460307 0.080019586 -0.0030629633 
0.33161962 0.05901749 -0.17151767 
-0.523974 0.0600625 -0.064955235 
0.17678395 0.07066962 -0.16301052 
0.40179023 0.070751 0.103463136 
0.3995523 0.04251675 -0.18011236 
0.6700704 0.024003426 0.17236176 
-0.38889307 0.05589842 -0.05860177 
-0.132603 0.034708936 -0.16522574 
-0.16880402 0.03375844 -0.18389404 
0.695998 -0.00435915 0.1109588 
0.6497166 0.08353641 -0.122085705 
0.6960011 -0.004361004 -0.110813506 
-0.23264009 0.056252696 -0.14904086 
-0.2896891 0.051467728 0.13468157 
0.06639027 0.028623682 -0.16335505 
0.16787171 0.029983746 -0.034141846 
0.28031722 0.07099731 0.0011898279 
0.17010334 0.07020009 -0.04651725 
0.8471122 0.070669115 0.010126529 
0.1923473 0.07067037 0.0417967 
0.57899517 0.070628464 -0.11668079 
0.16787535 0.029993031 0.034308963 
-0.29142094 0.027336966 -0.18274017 
-0.7000212 0.0091063045 -0.15886308 
0.02245543 0.040973198 0.17891446 
-0.35905284 0.057779968 0.16816457 
-0.76110476 -0.17622748 -0.17011137 
0.79528207 -0.28011638 -0.08880988 
-0.04816636 0.068176344 -0.10714178 
-0.1576753 0.08090798 -0.057097934 
-0.879307 0.07141534 -0.06503183 
0.16118968 0.07208608 0.029859414 
-0.001943899 0.064272694 -0.1681723 
0.16203098 0.042224266 0.076454766 
-0.78283757 -0.20026374 0.15151407 
0.18965992 0.08729461 0.010503852 
-0.4845896 0.07529443 0.0011809692 
0.45865372 0.0402228 -0.13769338 
0.1327448 0.043284196 0.15348396 
-0.027513504 0.040646162 0.17106092 
-0.8168608 0.045625135 0.048473313 
0.11627826 0.070671186 -0.070620954 
-0.26340398 0.07734474 -0.07670467 
-0.72765964 0.028657675 -0.03738112 
-0.26176837 0.084228545 -0.044396862 
-0.25161618 0.06272756 -0.00094487146 
0.09785749 0.04213593 -0.17219642 
-0.94701976 0.028651154 -0.113040134 
0.009336827 0.070670776 0.12362984 
0.52151346 0.07067186 -0.07895059 
0.19804634 0.073191755 0.07842737 
-0.18173555 0.059354596 -0.08502345 
0.051819883 0.05848217 -0.16573013 
-0.3872072 0.06420084 0.074885376 
-0.87823457 0.07065594 0.0069145705 
0.62473255 0.08281287 0.108707964 
-0.92554575 0.029957728 -0.05980789 
-0.45916924 0.038845032 -0.17970955 
0.052389648 0.013210694 -0.1435541 
0.1723372 0.07067287 0.0016140991 
0.13381879 0.029970216 -0.1340449 
-0.81857187 0.045488313 -0.00021699816 
0.7411404 0.037016876 -0.09658337 
-0.90605456 0.027693491 -0.019771237 
0.28683892 0.05594783 0.171085 
0.5606977 0.0725142 0.11220487 
-0.24341194 0.04456363 -0.18783051 
0.6885285 0.07067704 0.05864601 
0.28208622 0.03767173 -0.1706551 
0.90674126 0.029973079 -0.072809696 
0.7569671 0.07067433 0.12320429 
